-0.177092 -0.382118 0.009065 0.081021 -0.135036 0.987523 0.000000
-0.587859 0.089292 -0.031223 -0.504008 -0.635488 0.584919 0.000000
-0.234861 -0.145041 0.023685 -0.058843 0.001032 0.998267 0.000000
0.184846 0.107243 0.046761 0.009443 -0.066098 0.997768 0.000000
-0.475373 -0.153654 0.020983 -0.125402 -0.137577 0.982521 0.000000
-0.671782 -0.376448 -0.028125 -0.704434 0.612906 0.357937 0.000000
0.511402 -0.425716 -0.043512 0.674771 0.412821 0.611770 0.000000
0.028247 0.258393 0.052294 0.013723 -0.068614 0.997549 0.000000
-0.140146 -0.478530 0.001421 -0.058843 0.001032 0.998267 0.000000
0.124703 0.537858 0.005840 -0.722064 0.079907 0.687196 0.000000
0.407046 0.422731 0.059894 0.260233 0.318386 0.911542 0.000000
-0.236198 -0.552282 -0.085797 -0.292096 -0.124041 0.948311 0.000000
-0.051057 -0.336364 0.013213 -0.051643 -0.198163 0.978808 0.000000
0.391473 -0.096710 0.031101 -0.062480 0.370894 0.926571 0.000000
0.237602 0.206166 0.053151 0.013694 -0.068470 0.997559 0.000000
-0.582503 0.026408 -0.004828 -0.644483 0.516596 0.563712 0.000000
0.323767 -0.089953 0.025499 -0.055960 0.698788 0.713137 0.000000
0.070392 0.297870 0.054778 0.133650 0.197293 0.971192 0.000000
0.577154 -0.419988 -0.036385 0.580592 -0.493082 0.647907 0.000000
0.186050 0.525576 0.001281 -0.001087 0.120688 0.992690 0.000000
-0.180594 0.202115 0.046545 -0.052029 -0.209328 0.976460 0.000000
0.172727 -0.192692 0.028020 -0.051643 -0.198163 0.978808 0.000000
0.439791 -0.463470 0.010996 -0.061768 0.202259 0.977382 0.000000
-0.326854 0.178778 0.044477 -0.058843 0.001032 0.998267 0.000000
-0.390309 -0.116858 0.025985 0.158734 0.005629 0.987305 0.000000
0.242194 -0.235480 0.023931 -0.058843 0.001032 0.998267 0.000000
-0.455514 -0.665345 -0.082392 0.869374 0.486117 -0.088769 0.000000
0.057390 0.355035 0.058923 -0.193915 -0.273682 0.942070 0.000000
0.168839 -0.357033 0.017959 0.078192 -0.129542 0.988486 0.000000
0.391946 -0.032421 -0.032467 -0.058843 0.001032 0.998267 0.000000
-0.136691 -0.446299 0.001631 0.083213 -0.130093 0.988004 0.000000
0.694232 0.252987 -0.066838 -0.854770 -0.429695 -0.291084 0.000000
0.173398 -0.212657 0.024792 0.078349 -0.132140 0.988130 0.000000
-0.192893 -0.390561 0.006504 -0.058843 0.001032 0.998267 0.000000
-0.380565 0.023847 0.029860 -0.181202 -0.265672 0.946881 0.000000
0.316030 0.102805 0.046304 0.138624 0.005545 0.990330 0.000000
-0.388938 0.420674 0.044164 0.167775 0.584945 0.793530 0.000000
0.015799 -0.092577 0.026993 -0.061652 0.199461 0.977964 0.000000
0.158628 0.365506 0.061608 0.013723 -0.068614 0.997549 0.000000
0.451903 -0.634708 -0.060112 0.361135 -0.367335 0.857115 0.000000
-0.396769 0.298790 0.050196 0.092324 -0.149876 0.984385 0.000000
0.025466 0.428510 0.034239 -0.668783 0.491111 0.558157 0.000000
-0.621523 -0.334774 -0.015376 -0.054165 -0.198605 0.978582 0.000000
0.550069 0.029303 -0.032954 0.777627 -0.266570 0.569418 0.000000
-0.413349 -0.156372 0.021360 -0.183968 -0.263006 0.947092 0.000000
0.348481 0.329200 0.062955 -0.058843 0.001032 0.998267 0.000000
-0.689967 0.345281 -0.042031 -0.529509 0.339594 0.777365 0.000000
-0.434315 0.346128 0.056159 -0.058843 0.001032 0.998267 0.000000
0.109036 -0.660386 -0.067562 -0.080081 0.691610 0.717818 0.000000
0.475730 -0.543041 -0.044005 0.424618 0.759066 0.493475 0.000000
-0.673313 0.032260 -0.078664 -0.282763 0.059596 0.957337 0.000000
0.353800 0.398114 0.068181 -0.058843 0.001032 0.998267 0.000000
-0.532768 0.446838 0.019419 0.185568 0.645655 0.740739 0.000000
0.307796 -0.051213 -0.027625 0.040876 0.621591 0.782275 2.000000
0.085833 0.306307 0.055689 0.086084 -0.135611 0.987015 0.000000
0.014912 0.145757 0.044954 0.146102 0.005576 0.989254 0.000000
0.584858 0.508325 0.039365 0.420833 0.676993 0.603804 0.000000
0.089624 -0.051886 -0.030643 0.048749 0.536237 0.842658 0.000000
-0.169462 -0.350110 0.011156 0.009443 -0.066098 0.997768 0.000000
-0.570681 -0.516470 -0.079321 -0.183669 -0.066025 0.980768 0.000000
-0.414430 0.053340 0.034406 -0.127840 -0.135145 0.982544 0.000000
0.302324 0.031900 0.042216 -0.051933 -0.206524 0.977062 0.000000
0.025636 -0.191448 0.024281 -0.051739 -0.200941 0.978236 0.000000
0.620473 0.210512 -0.012458 0.082382 -0.614252 0.784798 0.000000
-0.486494 0.039760 0.036697 0.072647 0.271469 0.959701 0.000000
-0.138306 0.222660 0.049032 -0.058843 0.001032 0.998267 0.000000
-0.304722 0.282620 0.050700 -0.058843 0.001032 0.998267 0.000000
-0.701625 0.424479 -0.014969 -0.191843 -0.097778 0.976543 0.000000
0.476720 -0.227477 0.024648 0.299872 0.011106 0.953915 0.000000
-0.445787 0.296643 0.052207 -0.058843 0.001032 0.998267 0.000000
0.158208 -0.005493 -0.026604 0.076832 -0.476360 0.875887 0.000000
0.303478 -0.399885 0.012800 -0.051546 -0.195394 0.979369 0.000000
0.589610 -0.253438 -0.045396 -0.189005 0.312208 0.931023 0.000000
0.604096 -0.651049 -0.111708 0.784908 0.214346 0.581356 0.000000
0.383093 -0.370076 0.019112 0.073358 -0.131579 0.988588 0.000000
0.073124 -0.617050 -0.066028 -0.382835 0.117477 0.916317 0.000000
-0.232036 -0.551998 -0.083919 -0.657881 -0.046890 0.751661 0.000000
-0.505099 -0.636575 -0.101604 0.456495 0.863599 0.214029 0.000000
-0.681580 -0.656604 -0.027551 -0.597853 0.427989 0.677788 0.000000
-0.056453 -0.248569 0.019446 -0.058843 0.001032 0.998267 0.000000
0.256387 -0.069531 -0.012705 0.026401 0.804531 0.593324 0.000000
-0.402461 -0.097496 0.025278 0.075576 0.280527 0.956866 0.000000
0.073210 0.166613 0.048382 -0.058843 0.001032 0.998267 0.000000
0.194897 -0.621262 -0.068669 0.609786 -0.472038 0.636664 0.000000
0.444706 0.062493 0.048952 -0.253843 -0.204446 0.945392 0.000000
-0.137902 0.195592 0.047415 -0.125360 -0.139965 0.982189 0.000000
-0.075445 -0.292752 0.015057 -0.051643 -0.198163 0.978808 0.000000
-0.002096 0.438568 0.022834 0.312949 0.762312 0.566518 0.000000
-0.469947 0.630422 0.008478 0.050590 -0.463515 0.884644 0.000000
0.538911 -0.237604 -0.048367 -0.243710 -0.200142 0.948972 0.000000
0.559266 -0.459015 -0.045606 0.427024 -0.596504 0.679583 0.000000
0.666850 -0.171976 -0.004955 0.859328 0.012141 0.511280 0.000000
0.194700 0.498054 0.001782 0.357010 0.231692 0.904910 0.000000
0.437006 0.066415 0.046871 -0.128061 -0.140257 0.981799 0.000000
-0.199579 -0.152197 0.022491 -0.243710 -0.200142 0.948972 0.000000
-0.605046 0.484978 0.036390 0.789710 0.611707 0.046620 0.000000
0.026077 -0.547917 -0.072034 -0.635449 -0.635449 0.438644 0.000000
0.343809 0.220599 0.056125 -0.051836 -0.203728 0.977654 0.000000
-0.612780 -0.387780 -0.063814 -0.653981 0.427667 0.624027 0.000000
-0.512606 -0.087732 0.015554 -0.383864 0.464170 0.798244 0.000000
0.410555 0.582361 0.014474 0.160229 0.270638 0.949253 0.000000
-0.106105 0.380439 0.059123 -0.134919 -0.152248 0.979090 0.000000
0.354677 0.556450 -0.008386 0.286493 -0.925043 0.249434 0.000000
-0.077692 -0.161691 0.023121 -0.058843 0.001032 0.998267 0.000000
0.335392 -0.601100 -0.076729 -0.521355 -0.060103 0.851221 0.000000
0.655862 0.524709 0.012543 0.096098 -0.526385 0.844798 0.000000
0.698557 0.569505 0.028113 -0.073601 -0.980949 -0.179780 0.000000
0.126334 -0.021983 -0.035004 -0.046157 -0.378486 0.924455 0.000000
0.581506 0.479796 0.084831 -0.475393 0.733795 0.485332 0.000000
-0.109293 0.099837 0.040912 0.013721 -0.070715 0.997402 0.000000
-0.111707 -0.249513 0.017835 -0.058843 0.001032 0.998267 0.000000
-0.176079 0.509342 -0.015086 -0.427560 0.453571 0.781963 0.000000
-0.115429 -0.549581 -0.077076 0.189576 -0.235289 0.953258 0.000000
-0.372968 -0.070918 -0.020285 0.041118 0.730201 0.681994 0.000000
0.024666 -0.139922 0.025869 0.081021 -0.135036 0.987523 0.000000
0.429273 -0.508066 -0.010837 0.061438 -0.939874 0.335949 0.000000
-0.140783 0.382637 0.060350 0.093974 -0.136797 0.986131 0.000000
0.303131 0.401628 0.065206 -0.123322 0.068000 0.990034 0.000000
-0.437790 -0.026562 -0.042021 -0.177442 -0.258713 0.949517 2.000000
0.459483 0.228083 0.056392 -0.058843 0.001032 0.998267 0.000000
0.543209 0.654479 -0.007079 -0.061152 -0.001036 0.998128 0.000000
-0.386634 -0.669787 -0.086517 -0.047393 -0.318945 0.946588 0.000000
0.487161 0.345261 0.064572 0.028489 -0.278697 0.959956 0.000000
-0.620410 -0.074410 -0.056014 0.434823 0.147811 0.888302 0.000000
-0.632005 -0.261258 -0.055117 0.281847 0.795155 0.536927 0.000000
-0.679629 0.184464 -0.020268 0.682292 -0.149771 0.715574 0.000000
-0.523324 -0.608423 -0.105929 0.536615 -0.405333 0.740101 0.000000
-0.377223 0.012608 0.025162 -0.117646 -0.328598 0.937114 0.000000
0.372805 0.076803 0.046368 0.130938 0.003301 0.991385 0.000000
0.037421 0.630278 0.034999 0.886330 -0.350619 0.302466 0.000000
0.668217 -0.069754 0.008208 -0.987575 0.054543 -0.147382 0.000000
0.565419 -0.468265 -0.050138 -0.170550 -0.569004 0.804454 0.000000
-0.691071 0.480417 -0.059999 0.217465 0.562943 0.797373 0.000000
-0.215939 -0.451261 0.001868 -0.051546 -0.195394 0.979369 0.000000
-0.199922 0.636762 0.012910 -0.010211 -0.985941 -0.166782 0.000000
-0.047706 0.359557 0.057649 0.017982 -0.068755 0.997472 0.000000
-0.380745 0.520540 -0.002630 -0.521351 0.416094 0.745022 0.000000
-0.066767 0.346981 0.058160 0.287010 -0.129488 0.949135 0.000000
0.492010 0.330287 0.063225 0.131508 0.007736 0.991285 0.000000
0.061709 -0.210649 0.024762 -0.051739 -0.200941 0.978236 0.000000
-0.502211 0.497094 0.024488 -0.033831 0.466874 0.883677 0.000000
0.137168 -0.197363 0.024302 -0.058843 0.001032 0.998267 0.000000
-0.390069 -0.025351 -0.042478 0.022526 -0.435935 0.899696 0.000000
-0.635950 0.202171 -0.040537 0.143033 0.207463 0.967730 0.000000
-0.056760 0.597121 0.008254 0.457982 -0.870313 0.181131 0.000000
-0.303174 0.003384 -0.024323 0.145177 -0.390426 0.909116 0.000000
0.448341 0.313177 0.062285 0.009441 -0.068187 0.997628 0.000000
0.420959 -0.000101 -0.016073 -0.251004 -0.623563 0.740382 0.000000
-0.190522 0.513968 0.003639 0.391298 0.491964 0.777725 0.000000
0.411365 0.018901 0.040458 0.013347 -0.263299 0.964622 0.000000
-0.506973 0.253951 0.045344 -0.344796 -0.432962 0.832862 0.000000
-0.611242 0.187788 -0.026041 -0.230349 0.174426 0.957348 0.000000
0.304685 -0.038554 -0.034328 -0.064899 0.358932 0.931105 2.000000
-0.147800 0.344634 0.056666 -0.058843 0.001032 0.998267 0.000000
0.360003 -0.076257 0.004793 -0.081204 0.933182 0.350110 0.000000
-0.683410 -0.253518 -0.043455 -0.548821 -0.582595 0.599482 0.000000
-0.401044 0.397247 0.056496 0.001104 0.138020 0.990429 0.000000
-0.049430 -0.046281 -0.038803 -0.059418 0.360467 0.930877 0.000000
-0.486514 -0.482241 -0.002604 -0.169261 -0.241231 0.955593 0.000000
-0.552070 -0.494123 -0.070066 0.638915 0.413221 0.648873 0.000000
0.668554 0.605544 -0.014412 -0.123128 0.239775 0.962989 0.000000
0.690744 -0.570336 -0.060756 0.349941 -0.724296 0.594085 0.000000
-0.033403 -0.029390 -0.041121 -0.051546 -0.195394 0.979369 0.000000
-0.384140 -0.637943 -0.091242 0.737156 0.243623 0.630276 0.000000
-0.155213 -0.044720 -0.038486 -0.062699 0.497412 0.865246 0.000000
-0.142621 0.460307 -0.009873 -0.196406 -0.719126 0.666545 0.000000
0.324384 0.565230 -0.023209 0.470081 -0.330798 0.818289 0.000000
0.022798 0.602703 0.012927 0.709050 -0.414852 0.570215 0.000000
-0.506517 -0.107457 0.022431 -0.184786 0.129476 0.974213 0.000000
0.278457 -0.077954 0.004900 0.006423 0.921108 0.389255 0.000000
0.133030 -0.189490 0.024061 -0.051643 -0.198163 0.978808 0.000000
0.375483 0.341519 0.064542 0.138624 0.005545 0.990330 0.000000
0.169686 -0.228657 0.024568 0.078349 -0.132140 0.988130 0.000000
-0.346053 0.526913 0.015721 -0.794536 0.046571 0.605428 0.000000
0.009779 0.432692 0.030054 0.286171 0.539139 0.792108 0.000000
-0.490910 0.532706 -0.005828 0.094356 -0.992443 -0.078441 0.000000
0.580566 -0.332489 -0.039423 0.126892 -0.658345 0.741944 0.000000
-0.066257 -0.021970 -0.041417 0.013347 -0.263299 0.964622 0.000000
-0.240183 0.586719 -0.004144 -0.046010 0.003067 0.998936 0.000000
-0.015415 -0.557254 -0.076099 0.193921 -0.059019 0.979240 0.000000
-0.285020 -0.019186 -0.037946 0.137075 -0.540932 0.829821 0.000000
0.474929 -0.064832 -0.011294 -0.006930 0.724878 0.688842 0.000000
-0.623894 -0.175941 -0.061139 -0.318885 0.395910 0.861143 0.000000
0.660374 -0.172029 0.001191 0.711215 -0.382709 0.589667 0.000000
0.129615 0.268457 0.056612 -0.051836 -0.203728 0.977654 0.000000
0.343422 0.017407 0.038101 -0.046355 -0.388054 0.920470 0.000000
-0.561450 -0.482495 -0.073875 -0.252114 -0.562167 0.787659 0.000000
-0.693965 0.022673 -0.036252 0.354374 -0.369849 0.858854 0.000000
-0.215152 0.001387 -0.022419 -0.091815 -0.619387 0.779699 0.000000
-0.217280 0.565153 -0.019118 -0.303458 0.611732 0.730546 0.000000
0.030328 0.346784 0.057333 0.009441 -0.068187 0.997628 0.000000
-0.335315 0.217501 0.043990 -0.058843 0.001032 0.998267 0.000000
0.236992 0.478492 -0.007162 0.160521 0.273830 0.948288 0.000000
0.002936 -0.643232 -0.086467 0.054349 -0.517011 0.854252 0.000000
0.040206 -0.318960 0.015311 0.078349 -0.132140 0.988130 0.000000
-0.177786 0.463316 0.001111 0.020063 -0.062300 0.997856 0.000000
-0.226461 -0.192125 0.020903 -0.058843 0.001032 0.998267 0.000000
-0.179757 0.412430 0.058073 0.071748 0.250490 0.965457 0.000000
0.148093 -0.479177 0.005286 -0.058843 0.001032 0.998267 0.000000
-0.277206 -0.216742 0.017915 -0.051739 -0.200941 0.978236 0.000000
-0.472832 -0.094912 0.021147 -0.059947 0.379663 0.923181 0.000000
-0.687032 0.022706 0.005350 0.735730 -0.671372 -0.089224 0.000000
-0.373121 0.169964 0.043390 -0.187982 -0.275799 0.942655 0.000000
-0.445913 0.270581 0.048932 -0.051933 -0.206524 0.977062 0.000000
0.660621 0.575291 0.019366 -0.190162 0.127194 0.973478 0.000000
-0.267168 -0.488268 -0.002777 -0.048406 -0.357155 0.932790 0.000000
0.139103 -0.546996 -0.071924 0.131082 0.199805 0.971028 0.000000
0.501461 -0.174920 0.006544 0.785941 0.125810 0.605367 0.000000
0.446060 -0.418357 0.014641 -0.058843 0.001032 0.998267 0.000000
-0.295951 0.133758 0.039755 -0.052029 -0.209328 0.976460 0.000000
0.646968 -0.329315 -0.059992 -0.983852 0.014959 -0.178359 0.000000
0.275352 0.478415 0.008141 -0.293557 0.054645 0.954378 0.000000
-0.322813 0.009874 0.026723 0.003122 -0.997844 0.065552 0.000000
0.701475 0.080335 -0.009373 0.434796 -0.025263 0.900174 0.000000
0.316757 0.200341 0.054531 -0.058843 0.001032 0.998267 0.000000
-0.266321 -0.114257 0.025109 -0.058843 0.001032 0.998267 0.000000
0.595422 -0.558091 -0.059819 0.362760 0.378329 0.851629 0.000000
0.135084 -0.038104 -0.037759 0.066414 0.249364 0.966130 0.000000
0.568000 -0.016057 -0.031913 -0.458263 0.006603 0.888792 0.000000
-0.494865 0.177634 0.044404 -0.058843 0.001032 0.998267 0.000000
-0.001669 -0.211800 0.022674 -0.122459 -0.134583 0.983306 0.000000
-0.208689 0.292584 0.054705 -0.058843 0.001032 0.998267 0.000000
-0.471965 0.333202 0.055575 0.077178 0.072704 0.994363 0.000000
-0.600261 -0.342924 -0.020658 0.379080 0.001276 0.925363 0.000000
-0.392240 0.154330 0.040632 -0.058843 0.001032 0.998267 0.000000
0.329716 0.006009 -0.016533 -0.235198 -0.386080 0.891978 0.000000
0.488979 0.542307 0.001125 0.001377 0.756234 0.654300 0.000000
-0.551526 0.086134 -0.002990 -0.442031 0.038963 0.896153 0.000000
0.713444 0.187271 0.046758 -0.960290 -0.018396 -0.278398 0.000000
0.313435 0.312656 0.060891 -0.058843 0.001032 0.998267 0.000000
-0.686515 0.626720 -0.004234 0.688937 0.630025 0.358378 0.000000
0.179063 0.032924 0.039875 0.081021 -0.135036 0.987523 0.000000
-0.279857 0.060773 0.035783 -0.058843 0.001032 0.998267 0.000000
-0.259278 0.351890 0.056646 0.022441 -0.073735 0.997025 0.000000
-0.603782 0.180195 -0.025604 0.494163 0.362171 0.790339 0.000000
-0.011483 0.528751 -0.007049 0.209912 -0.907690 0.363366 0.000000
-0.181244 0.247905 0.049779 0.151129 0.005597 0.988498 0.000000
-0.155476 0.048471 0.036557 -0.058843 0.001032 0.998267 0.000000
-0.516567 0.140568 0.030067 -0.596986 -0.020777 0.801983 0.000000
-0.508711 0.079031 0.027249 -0.438671 -0.123509 0.890120 0.000000
0.318087 -0.625447 -0.072858 -0.512389 -0.309337 0.801104 0.000000
0.222989 0.167003 0.049016 -0.196043 -0.074277 0.977778 0.000000
0.170563 -0.264623 0.022981 0.078192 -0.129542 0.988486 0.000000
-0.223616 0.231631 0.047288 0.153656 0.005608 0.988109 0.000000
-0.209560 -0.079275 -0.022115 -0.057095 0.975473 0.212587 0.000000
-0.655712 0.534083 0.022014 0.716204 -0.683033 -0.143241 0.000000
0.655678 -0.357437 -0.046439 0.075723 -0.933914 0.349387 0.000000
0.078850 -0.266210 0.020860 0.009443 -0.066098 0.997768 0.000000
0.599871 -0.442984 -0.054633 0.066684 0.425963 0.902280 0.000000
-0.693168 -0.081693 -0.016046 0.311381 -0.076868 0.947171 0.000000
0.199065 0.170014 0.050876 0.143601 0.005566 0.989620 0.000000
-0.032209 -0.518237 -0.023249 -0.233138 -0.922541 0.307514 0.000000
0.557632 0.608456 0.137294 0.088750 -0.766738 0.635796 0.000000
0.209643 0.359550 0.062972 -0.044388 -0.205142 0.977725 0.000000
0.374779 0.420897 0.061264 0.367335 0.361135 0.857115 0.000000
-0.260972 0.126888 0.040172 -0.052223 -0.214962 0.975225 0.000000
-0.596502 -0.261311 -0.069346 0.142464 0.396360 0.906974 0.000000
-0.250641 -0.067690 -0.027781 -0.065192 0.368535 0.927325 0.000000
-0.683857 -0.453692 -0.054390 0.275365 -0.609623 0.743326 0.000000
-0.289308 -0.035152 -0.043095 0.066490 0.254671 0.964739 2.000000
0.679432 0.325218 -0.018751 -0.195551 0.124900 0.972708 0.000000
-0.064697 -0.465494 0.004219 -0.051449 -0.192634 0.979921 0.000000
0.684875 -0.602607 -0.054583 0.116533 -0.160692 0.980101 0.000000
0.652497 -0.189443 -0.046580 0.587462 -0.570532 0.573918 0.000000
-0.018290 -0.388067 0.010229 -0.058843 0.001032 0.998267 0.000000
0.078323 0.112349 0.045404 0.009461 -0.068330 0.997618 0.000000
0.556802 -0.464154 -0.050641 -0.122895 -0.786230 0.605590 0.000000
-0.080817 -0.080552 -0.021082 0.319938 0.935098 0.152417 0.000000
-0.524551 -0.036857 -0.040590 0.058120 0.423058 0.904237 0.000000
-0.132466 -0.182500 0.021527 -0.051739 -0.200941 0.978236 0.000000
0.265038 0.557210 0.012450 0.871538 -0.162045 0.462777 0.000000
0.004137 -0.078788 -0.019354 -0.027560 0.974182 0.224074 0.000000
0.305425 0.575481 0.011566 0.553544 -0.730941 0.399143 0.000000
0.588279 -0.281540 -0.027538 -0.682097 0.287283 0.672467 0.000000
-0.372438 0.023900 0.030337 -0.181538 -0.268894 0.945907 0.000000
-0.004587 -0.267587 0.019223 -0.058843 0.001032 0.998267 0.000000
0.122402 -0.418380 0.010322 0.009443 -0.066098 0.997768 0.000000
-0.140123 -0.202412 0.019443 0.011565 -0.066235 0.997737 0.000000
-0.228832 -0.025758 -0.041174 0.017166 -0.437084 0.899257 0.000000
-0.166188 0.279135 0.050673 0.159800 -0.206570 0.965294 0.000000
-0.222379 0.116424 0.039171 -0.058843 0.001032 0.998267 0.000000
0.020597 -0.335211 0.014157 0.078192 -0.129542 0.988486 0.000000
-0.622027 -0.385629 -0.080668 -0.744936 0.159304 0.647837 0.000000
0.243472 -0.428915 0.010899 -0.058843 0.001032 0.998267 0.000000
0.349635 0.044709 0.044997 -0.051836 -0.203728 0.977654 0.000000
0.014161 -0.581525 -0.072741 -0.730384 0.659949 0.176088 0.000000
0.624845 0.194108 -0.012208 0.395470 0.003865 0.918471 0.000000
0.556418 0.168783 -0.019491 0.062461 0.062461 0.996091 0.000000
0.395758 -0.092608 0.029724 -0.059772 0.373244 0.925806 0.000000
-0.313655 -0.031644 -0.042888 0.081346 -0.140292 0.986763 2.000000
0.277733 -0.553323 -0.067049 0.670874 0.434487 0.600957 0.000000
-0.124736 -0.166540 0.023618 0.015810 -0.263908 0.964418 0.000000
-0.528850 -0.404264 -0.008326 -0.923298 -0.038088 0.382190 0.000000
-0.405679 -0.191498 0.020170 -0.058843 0.001032 0.998267 0.000000
-0.392100 -0.079422 -0.018147 -0.010777 0.968733 0.247871 0.000000
0.155496 -0.046164 -0.033297 -0.122200 0.411548 0.903158 0.000000
-0.420626 -0.250733 0.016014 -0.058843 0.001032 0.998267 0.000000
-0.068805 -0.076254 -0.020375 -0.234932 0.351668 0.906166 0.000000
0.384773 0.010858 0.034002 -0.264659 -0.963851 -0.030774 0.000000
-0.625012 0.140905 -0.033387 0.026536 0.780730 0.624305 0.000000
-0.663792 -0.614316 -0.073398 -0.285754 -0.123605 0.950298 0.000000
0.614334 0.481560 -0.009477 0.333332 -0.665039 0.668291 0.000000
0.563325 -0.617944 -0.063353 -0.834257 0.159119 0.527917 0.000000
-0.407843 -0.489094 0.000381 -0.045777 -0.364905 0.929919 0.000000
0.596363 -0.207148 -0.043355 -0.058843 0.001032 0.998267 0.000000
0.548148 -0.354279 -0.042965 -0.189332 0.315553 0.929828 0.000000
0.094033 0.116717 0.044697 -0.061768 0.202259 0.977382 0.000000
0.105515 -0.550888 -0.070630 -0.175324 -0.242241 0.954244 0.000000
0.097948 0.496217 -0.003901 -0.246906 -0.200526 0.948065 0.000000
0.639128 -0.172753 -0.032677 -0.564506 -0.771227 0.294179 0.000000
0.640022 -0.106147 -0.027711 -0.040001 -0.514490 0.856563 0.000000
-0.180881 -0.402343 0.007204 0.083213 -0.130093 0.988004 0.000000
-0.506380 -0.185552 0.017522 -0.190026 -0.071411 0.979179 0.000000
0.152082 0.161183 0.048119 0.083548 -0.135323 0.987273 0.000000
0.250081 0.326522 0.060441 -0.058843 0.001032 0.998267 0.000000
0.721411 -0.528211 -0.040997 0.444317 0.554149 0.703919 0.000000
-0.580325 0.620974 -0.025734 0.986025 0.139162 -0.091585 0.000000
-0.203417 -0.164095 0.022264 -0.058843 0.001032 0.998267 0.000000
0.118917 0.412387 0.057659 -0.169477 0.421520 0.890841 0.000000
-0.618162 0.224911 -0.031330 -0.118604 -0.344907 0.931113 0.000000
0.262396 -0.376235 0.013660 0.075697 -0.129267 0.988716 0.000000
0.197068 -0.212157 0.027813 -0.058843 0.001032 0.998267 0.000000
-0.128715 0.356395 0.057789 -0.058843 0.001032 0.998267 0.000000
0.239330 -0.536745 -0.066038 -0.009606 -0.588716 0.808283 0.000000
0.607981 0.231244 -0.014816 -0.575510 0.382033 0.723076 0.000000
0.619423 -0.248182 -0.033854 -0.324319 0.251602 0.911874 0.000000
-0.284213 -0.303933 0.012586 -0.058843 0.001032 0.998267 0.000000
0.602295 0.435753 0.015901 -0.514599 -0.829160 0.218361 0.000000
-0.252532 0.398434 0.058690 -0.061303 0.191122 0.979650 0.000000
0.462294 0.039613 0.045084 0.078192 -0.129542 0.988486 0.000000
0.182321 -0.001164 -0.021925 -0.154496 -0.580485 0.799480 0.000000
0.549902 0.306080 -0.008416 -0.878727 -0.476483 -0.028346 0.000000
0.666687 0.150899 -0.044015 0.595948 -0.514913 0.616207 0.000000
-0.444546 -0.418337 -0.001750 -0.058843 0.001032 0.998267 0.000000
-0.471698 0.090326 0.039211 -0.196474 -0.076881 0.977490 0.000000
0.281955 0.176063 0.052480 -0.058843 0.001032 0.998267 0.000000
-0.094670 -0.034826 -0.043088 0.200232 0.133913 0.970554 0.000000
0.729197 -0.496314 -0.051948 0.849984 -0.092855 0.518561 0.000000
0.023542 -0.484589 0.004500 0.075697 -0.129267 0.988716 0.000000
0.443179 0.650564 0.009885 -0.760671 0.355196 0.543337 0.000000
0.413773 -0.180313 0.029124 -0.122459 -0.134583 0.983306 0.000000
-0.114332 -0.337258 0.012760 -0.061026 0.001034 0.998136 0.000000
-0.330123 0.059616 0.034463 0.091954 -0.144499 0.985223 0.000000
0.384096 0.572490 0.006394 0.748935 0.015341 0.662466 0.000000
0.060992 0.010734 0.036203 -0.068953 -0.987547 0.141412 0.000000
0.183669 -0.054171 -0.025123 -0.055391 0.597942 0.799623 0.000000
0.423527 0.625763 0.008725 0.012067 0.119569 0.992753 0.000000
-0.014865 -0.587377 -0.080971 0.161971 -0.364786 0.916895 0.000000
-0.568904 -0.020503 -0.054606 -0.051643 -0.198163 0.978808 0.000000
0.704587 0.500799 0.017032 0.548758 0.439338 0.711230 0.000000
-0.273018 -0.560716 -0.084696 0.553282 -0.040416 0.832013 0.000000
-0.051254 -0.320284 0.014837 -0.051643 -0.198163 0.978808 0.000000
-0.503235 -0.387077 0.001338 0.013392 -0.269064 0.963029 0.000000
-0.608821 0.519454 -0.035588 -0.711632 0.255173 0.654574 0.000000
-0.320842 0.600269 0.010696 -0.138039 -0.808941 0.571454 0.000000
-0.384090 0.065925 0.034559 -0.058843 0.001032 0.998267 0.000000
0.002586 -0.227600 0.021287 -0.051739 -0.200941 0.978236 0.000000
0.451429 -0.011335 -0.020812 0.070249 -0.597829 0.798539 0.000000
0.193683 -0.232222 0.025976 -0.058843 0.001032 0.998267 0.000000
-0.381508 0.374410 0.057636 0.083715 -0.137953 0.986894 0.000000
0.085719 0.136106 0.045844 0.146102 0.005576 0.989254 0.000000
-0.602158 0.646209 -0.030269 -0.409015 -0.374272 0.832242 0.000000
-0.460643 0.178484 0.044777 0.096753 -0.139754 0.985448 0.000000
0.251195 -0.271396 0.021187 0.138624 0.005545 0.990330 0.000000
-0.413042 0.408418 0.055795 0.215535 0.138097 0.966682 0.000000
-0.295414 0.568568 -0.005762 -0.674517 0.185915 0.714466 0.000000
-0.574396 0.093010 -0.025537 -0.307176 0.386645 0.869568 0.000000
-0.700915 0.563736 -0.016516 0.145352 0.783705 0.603887 0.000000
-0.311861 -0.083170 0.012656 -0.041803 0.951341 0.305291 0.000000
-0.395651 0.054100 0.033879 0.013748 -0.072969 0.997239 0.000000
0.429483 0.164402 0.052984 0.009461 -0.068330 0.997618 0.000000
-0.092949 0.045993 0.036964 0.148611 0.005587 0.988880 0.000000
0.208103 -0.324226 0.020273 0.138624 0.005545 0.990330 0.000000
0.316360 -0.085925 0.021800 -0.080066 0.869489 0.487420 0.000000
-0.547358 0.129760 -0.025570 -0.436949 0.025234 0.899132 0.000000
-0.084258 -0.490298 -0.000196 -0.048406 -0.357155 0.932790 0.000000
-0.288768 -0.580958 -0.080734 0.136148 0.005534 0.990673 0.000000
-0.221622 0.391688 0.058870 -0.058843 0.001032 0.998267 0.000000
-0.196528 0.228479 0.048876 -0.052029 -0.209328 0.976460 0.000000
0.307846 0.588564 0.018235 -0.704328 -0.004151 0.709863 0.000000
0.536790 -0.385759 -0.061579 0.303511 -0.333413 0.892590 0.000000
-0.059404 0.366260 0.060230 0.013748 -0.072969 0.997239 0.000000
-0.384670 0.501736 -0.006125 -0.518447 -0.004040 0.855100 0.000000
-0.251852 0.367500 0.057086 0.020179 -0.071157 0.997261 0.000000
-0.677855 -0.245214 -0.036602 -0.632465 0.330052 0.700752 0.000000
-0.062049 0.301061 0.055162 -0.058843 0.001032 0.998267 0.000000
-0.069352 -0.189250 0.021967 -0.058843 0.001032 0.998267 0.000000
-0.023325 -0.113216 0.027953 -0.058843 0.001032 0.998267 0.000000
-0.181104 0.240375 0.049786 -0.052029 -0.209328 0.976460 0.000000
0.596219 0.610323 0.035166 -0.683858 -0.657991 -0.315254 0.000000
-0.314743 0.013692 0.030457 -0.246906 -0.200526 0.948065 0.000000
-0.358135 0.500588 -0.033927 -0.556291 0.367054 0.745528 0.000000
0.619743 -0.490272 -0.086104 0.219921 -0.887065 0.405895 0.000000
0.689853 -0.327680 -0.047687 0.684711 0.605132 0.406185 0.000000
0.672619 0.605621 -0.014175 -0.111237 0.372162 0.921478 0.000000
-0.345513 0.009510 -0.013759 0.082497 -0.993356 0.080237 0.000000
0.554421 0.385571 0.000027 0.678901 -0.287289 0.675691 0.000000
0.311781 0.620818 0.038047 -0.188071 0.132533 0.973172 0.000000
-0.215006 0.151376 0.041246 0.017982 -0.068755 0.997472 0.000000
-0.521196 0.547593 -0.015759 0.551802 -0.558552 0.619301 0.000000
0.627373 -0.243804 -0.031756 -0.053962 -0.193062 0.979702 0.000000
-0.315333 0.171265 0.045151 0.212995 0.140706 0.966869 0.000000
0.487038 -0.631594 -0.048260 -0.959413 -0.187106 0.210991 0.000000
0.443169 -0.443044 0.012833 0.073065 -0.126415 0.989283 0.000000
-0.690984 0.530548 -0.001260 0.455345 0.844318 0.282468 0.000000
0.260742 0.364996 0.062708 0.018017 -0.071010 0.997313 0.000000
0.407136 0.516749 0.017519 0.626419 -0.704518 0.333548 0.000000
-0.590940 -0.321401 -0.054353 -0.238890 0.008320 0.971011 0.000000
0.407797 -0.480360 0.009111 0.070596 -0.126146 0.989497 0.000000
-0.703743 0.619881 -0.000353 -0.308959 0.401186 0.862319 0.000000
-0.509745 -0.005516 -0.025030 0.029009 -0.830209 0.556696 0.000000
0.565156 -0.345815 -0.043592 0.286618 0.546316 0.787012 0.000000
0.462000 0.661105 0.015888 -0.038078 0.624758 0.779890 0.000000
0.095874 0.537318 0.015568 0.074633 0.070178 0.994739 0.000000
-0.224937 -0.338945 0.011162 -0.058843 0.001032 0.998267 0.000000
0.478594 0.352427 0.065703 -0.058843 0.001032 0.998267 0.000000
0.384076 -0.390621 0.015905 0.009443 -0.066098 0.997768 0.000000
-0.422600 0.350016 0.056849 -0.058843 0.001032 0.998267 0.000000
-0.524078 -0.403967 -0.006415 -0.392363 0.003859 0.919802 0.000000
-0.206398 0.595893 -0.023366 -0.058843 0.001032 0.998267 0.000000
0.187891 0.289510 0.058410 -0.058843 0.001032 0.998267 0.000000
-0.126604 -0.048148 -0.038439 0.057891 0.413312 0.908747 0.000000
0.231643 -0.437485 0.010202 0.007329 -0.065961 0.997795 0.000000
0.238153 -0.044190 -0.033341 0.057735 0.406831 0.911677 0.000000
0.687943 0.459374 0.029090 -0.977194 0.196906 0.079496 0.000000
0.476490 0.410612 0.068861 -0.058843 0.001032 0.998267 0.000000
-0.283165 -0.496918 -0.005351 0.281874 -0.481211 0.830050 0.000000
-0.070789 -0.340709 0.012056 -0.058843 0.001032 0.998267 0.000000
-0.252265 -0.355242 0.009552 -0.051643 -0.198163 0.978808 0.000000
0.559640 -0.136587 -0.052015 -0.506690 0.722656 0.470142 0.000000
0.400170 -0.564237 -0.063127 0.737360 0.506419 0.447035 0.000000
-0.255040 -0.098267 0.025775 -0.061768 0.202259 0.977382 0.000000
0.545610 -0.061237 -0.052816 0.385553 0.572588 0.723528 0.000000
0.122642 0.070641 0.043100 -0.058843 0.001032 0.998267 0.000000
-0.462017 -0.035062 -0.043445 0.081480 0.065853 0.994497 2.000000
-0.089101 0.296886 0.053571 -0.058843 0.001032 0.998267 0.000000
0.399800 0.214330 0.056149 -0.051933 -0.206524 0.977062 0.000000
-0.035787 -0.586547 -0.075676 0.120902 -0.338254 0.933256 0.000000
-0.480312 0.017481 0.028900 -0.043920 -0.408585 0.911663 0.000000
-0.219951 0.552898 -0.007859 0.064223 0.441364 0.895027 0.000000
0.571212 -0.315872 -0.038336 -0.381903 -0.102662 0.918483 0.000000
0.243125 -0.127686 0.030541 -0.058843 0.001032 0.998267 0.000000
0.335752 -0.089726 0.026202 -0.115343 0.553354 0.824921 0.000000
0.698984 0.507615 0.019963 0.324057 0.439904 0.837539 0.000000
0.431467 0.335660 0.064566 -0.058843 0.001032 0.998267 0.000000
-0.241147 0.077183 0.038061 0.011588 -0.068472 0.997586 0.000000
0.137188 0.531169 0.003309 0.519226 0.062979 0.852314 0.000000
-0.378487 -0.250140 0.013593 0.011586 -0.070569 0.997440 0.000000
-0.181378 0.454699 0.002529 -0.209878 0.729131 0.651398 0.000000
-0.051678 0.530028 -0.004514 -0.058843 0.001032 0.998267 0.000000
0.427002 -0.594050 -0.048514 -0.247271 0.206287 0.946733 0.000000
0.118457 0.462819 0.000558 0.105961 0.331297 0.937558 0.000000
0.702892 0.528467 0.029987 -0.099610 -0.995026 -0.001071 0.000000
-0.209707 0.357713 0.057929 -0.182730 -0.284400 0.941130 0.000000
-0.243165 -0.618981 -0.084593 0.009406 -0.061660 0.998053 0.000000
-0.532805 0.108667 -0.016566 -0.753587 0.477764 0.451495 0.000000
0.630471 -0.338178 -0.060962 0.092219 0.701160 0.707015 0.000000
-0.484430 -0.052176 -0.038239 0.063900 0.428263 0.901392 2.000000
-0.235191 0.242612 0.049876 0.091954 -0.144499 0.985223 0.000000
-0.297522 -0.069184 -0.020752 0.199668 0.654724 0.729019 0.000000
0.459940 0.444057 0.023858 0.278943 0.849158 0.448466 0.000000
-0.051091 -0.105903 0.029590 0.146102 0.005576 0.989254 0.000000
0.241307 0.549023 0.009425 -0.023843 -0.750361 0.660598 0.000000
0.128958 0.439015 0.025635 -0.309618 0.798655 0.516030 0.000000
0.638214 0.444174 0.019643 0.492586 -0.623718 0.606906 0.000000
0.153856 0.083039 0.044934 0.081021 -0.135036 0.987523 0.000000
-0.323463 -0.253118 0.015191 0.013721 -0.070715 0.997402 0.000000
-0.155430 0.329017 0.056212 -0.051933 -0.206524 0.977062 0.000000
0.349895 -0.602440 -0.062827 0.170021 -0.065393 0.983268 0.000000
0.069519 0.154937 0.048162 0.081184 -0.137659 0.987147 0.000000
-0.058577 -0.129690 0.025879 -0.058843 0.001032 0.998267 0.000000
0.146893 -0.277035 0.021587 0.009443 -0.066098 0.997768 0.000000
0.674150 -0.418557 -0.035588 0.250675 0.484433 0.838145 0.000000
0.257298 -0.331949 0.015004 0.078192 -0.129542 0.988486 0.000000
0.095497 -0.467548 0.005467 -0.058843 0.001032 0.998267 0.000000
0.470007 0.263098 0.060284 -0.058843 0.001032 0.998267 0.000000
-0.664382 -0.322999 -0.060299 -0.099417 -0.446678 0.889154 0.000000
0.421389 -0.031764 -0.033997 -0.058964 -0.003103 0.998255 2.000000
-0.503955 0.124728 0.035696 -0.297227 -0.133147 0.945478 0.000000
-0.222936 0.473850 -0.011321 0.139809 -0.206508 0.968405 0.000000
0.002700 -0.440396 0.006550 -0.058843 0.001032 0.998267 0.000000
-0.326768 0.152109 0.041209 -0.058843 0.001032 0.998267 0.000000
0.221065 0.420427 0.057136 0.169193 0.717925 0.675246 0.000000
0.390809 0.026248 0.040885 0.078349 -0.132140 0.988130 0.000000
0.086293 0.287175 0.054078 0.011586 -0.070569 0.997440 0.000000
-0.347894 0.357943 0.053081 0.084584 -0.148916 0.985226 0.000000
0.189938 -0.615650 -0.062433 0.414506 0.237929 0.878393 0.000000
0.074161 0.479889 -0.006929 0.532344 0.063207 0.844165 0.000000
-0.317961 -0.444028 0.004043 0.009424 -0.063875 0.997913 0.000000
-0.439901 -0.334060 0.009965 0.158734 0.005629 0.987305 0.000000
0.429343 -0.027539 -0.031900 -0.051449 -0.192634 0.979921 0.000000
-0.646708 -0.237418 -0.062497 -0.061419 0.193893 0.979098 0.000000
0.598517 0.588327 -0.031583 0.215512 0.524260 0.823837 0.000000
-0.530467 -0.556844 -0.098179 0.619641 -0.468509 0.629717 0.000000
-0.609048 -0.511694 -0.073418 0.585990 0.488605 0.646437 0.000000
-0.688199 0.511507 0.047828 -0.059187 0.879546 0.472119 0.000000
0.139106 -0.442497 0.008034 -0.058843 0.001032 0.998267 0.000000
0.615268 -0.081629 -0.030793 -0.341972 -0.439679 0.830504 0.000000
-0.349368 -0.044737 -0.041727 0.132353 0.380341 0.915327 2.000000
0.651920 0.100160 -0.012275 -0.129270 0.249400 0.959734 0.000000
-0.351835 -0.600280 -0.090966 -0.058843 0.001032 0.998267 0.000000
0.334321 0.637078 -0.017714 -0.969359 0.070929 0.235185 0.000000
0.682077 0.218168 -0.043091 0.172293 0.117754 0.977982 0.000000
-0.373912 -0.293519 0.012220 -0.058843 0.001032 0.998267 0.000000
0.611816 -0.630873 -0.065404 -0.792256 0.603277 -0.091582 0.000000
-0.366699 0.539919 -0.032790 0.538910 -0.816762 0.206099 0.000000
-0.320011 -0.253105 0.015394 0.015865 -0.070862 0.997360 0.000000
-0.101509 -0.647650 -0.084443 0.435651 0.242698 0.866779 0.000000
-0.071856 0.189719 0.048029 -0.058843 0.001032 0.998267 0.000000
-0.437903 0.255261 0.049399 0.076701 0.065585 0.994895 0.000000
0.466803 -0.414095 0.014227 0.121453 -0.184058 0.975383 0.000000
0.630918 -0.650485 -0.044582 -0.661745 -0.326808 0.674752 0.000000
-0.301337 -0.126703 0.024682 -0.058843 0.001032 0.998267 0.000000
-0.022335 0.252547 0.052584 -0.058843 0.001032 0.998267 0.000000
-0.018003 0.020538 0.036460 0.081346 -0.140292 0.986763 0.000000
-0.392803 -0.396994 0.006187 -0.116878 -0.131337 0.984424 0.000000
-0.240483 -0.355019 0.010245 -0.051643 -0.198163 0.978808 0.000000
-0.071279 -0.308652 0.015294 -0.051739 -0.200941 0.978236 0.000000
-0.665002 0.102694 -0.027588 -0.362681 -0.332075 0.870740 0.000000
0.674347 -0.010975 -0.010991 -0.377719 0.316550 0.870129 0.000000
0.304695 -0.432643 0.009602 -0.128170 0.065817 0.989566 0.000000
-0.176132 0.568391 -0.002023 -0.685894 -0.251864 0.682726 0.000000
0.417531 -0.304887 0.022784 0.007329 -0.065961 0.997795 0.000000
0.602028 0.360004 -0.003711 0.328135 -0.205972 0.921902 0.000000
-0.660617 -0.245147 -0.045376 -0.119618 0.420773 0.899245 0.000000
0.110310 0.256282 0.055478 -0.058843 0.001032 0.998267 0.000000
-0.112981 0.341222 0.058706 -0.058843 0.001032 0.998267 0.000000
0.553467 -0.025185 -0.024613 0.186948 0.501019 0.845003 0.000000
-0.681760 0.236306 -0.056264 -0.379547 -0.014153 0.925064 0.000000
0.542689 -0.145401 -0.038329 -0.012330 0.820647 0.571302 0.000000
0.374255 -0.020643 -0.030239 -0.046090 -0.375306 0.925754 0.000000
0.455614 -0.336945 0.020116 -0.058843 0.001032 0.998267 0.000000
0.616191 0.425425 0.011819 -0.431780 -0.601825 0.671843 0.000000
0.145772 -0.389844 0.013333 0.078192 -0.129542 0.988486 0.000000
-0.274108 -0.512645 -0.026027 -0.162416 -0.636004 0.754401 0.000000
0.339817 -0.502217 0.003486 0.562344 -0.659705 0.498556 0.000000
0.226111 0.337057 0.060667 -0.058843 0.001032 0.998267 0.000000
-0.603606 -0.342884 -0.019221 0.242709 -0.076711 0.967062 0.000000
-0.007602 0.295576 0.053461 0.081671 -0.145587 0.985969 0.000000
0.552437 -0.389911 -0.028042 -0.876989 -0.476474 -0.062149 0.000000
-0.423540 0.483901 -0.005151 0.361521 -0.006342 0.932343 0.000000
0.231746 -0.004095 -0.022286 0.076918 -0.479686 0.874063 0.000000
0.398423 0.417276 0.062652 -0.054673 -0.212616 0.975605 0.000000
0.612726 -0.244344 -0.039143 -0.573433 0.115860 0.811019 0.000000
-0.698467 0.218012 -0.022686 0.160323 -0.813601 0.558883 0.000000
0.077082 -0.574235 -0.080464 0.190943 0.783628 0.591158 0.000000
0.332367 -0.536005 -0.067098 -0.657290 -0.536254 0.529530 0.000000
0.048656 -0.035773 -0.039567 -0.058843 0.001032 0.998267 0.000000
0.186113 0.543084 -0.001970 -0.516298 0.104985 0.849950 0.000000
0.542206 0.601106 -0.028355 -0.127352 0.058513 0.990130 0.000000
-0.002719 -0.367921 0.011149 -0.058843 0.001032 0.998267 0.000000
0.271334 0.124964 0.050213 0.081021 -0.135036 0.987523 0.000000
-0.440041 -0.168634 0.021420 0.158734 0.005629 0.987305 0.000000
-0.550889 -0.415105 -0.060189 -0.225087 0.512953 0.828381 0.000000
0.132533 -0.169595 0.025669 -0.051739 -0.200941 0.978236 0.000000
-0.680606 -0.272029 -0.092226 -0.395456 -0.789298 0.469705 0.000000
-0.692321 0.286625 -0.017720 0.742088 0.667159 0.064843 0.000000
0.239330 -0.536745 -0.066038 -0.009606 -0.588716 0.808283 0.000000
0.687199 -0.349106 -0.051111 -0.053674 -0.354774 0.933410 0.000000
0.308217 -0.046931 -0.029229 0.051636 0.528916 0.847102 2.000000
0.117737 0.275963 0.055919 -0.058843 0.001032 0.998267 0.000000
0.376070 -0.088859 0.026939 0.043955 0.636632 0.769914 0.000000
-0.246433 0.509652 -0.001273 0.273111 0.504085 0.819334 0.000000
0.219124 -0.639550 -0.093347 0.121213 -0.181194 0.975949 0.000000
-0.096507 0.269464 0.053131 -0.120276 -0.139714 0.982860 0.000000
0.671249 0.151189 -0.045379 -0.058843 0.001032 0.998267 0.000000
-0.200389 -0.418797 0.004426 0.076152 -0.137073 0.987629 0.000000
-0.348667 0.415338 0.054681 -0.260265 0.168565 0.950709 0.000000
0.345183 0.549760 -0.000790 0.092254 -0.343611 0.934570 0.000000
-0.204184 -0.017348 -0.036458 -0.040192 -0.539129 0.841263 0.000000
0.011870 -0.040745 -0.040097 0.001230 0.308835 0.951115 0.000000
-0.680476 0.212743 -0.021942 0.089554 -0.146869 0.985094 0.000000
-0.219951 0.552898 -0.007859 0.064223 0.441364 0.895027 0.000000
-0.645504 -0.168327 -0.042835 -0.058843 0.001032 0.998267 0.000000
0.315200 0.250999 0.057716 -0.058843 0.001032 0.998267 0.000000
0.518152 -0.240926 -0.020225 0.397167 -0.133325 0.908011 0.000000
0.657816 -0.561153 -0.017013 -0.080095 -0.706290 0.703377 0.000000
-0.357118 0.112649 0.039418 -0.058843 0.001032 0.998267 0.000000
-0.426621 0.293345 0.053331 -0.058843 0.001032 0.998267 0.000000
-0.424831 -0.314128 0.010856 -0.051739 -0.200941 0.978236 0.000000
0.244919 -0.473881 0.007711 -0.058843 0.001032 0.998267 0.000000
0.508001 0.423415 0.056032 0.541117 0.632146 0.554603 0.000000
-0.370770 -0.179079 0.018959 -0.058843 0.001032 0.998267 0.000000
0.426985 -0.061367 -0.019001 0.140426 0.545446 0.826299 0.000000
-0.680336 -0.661446 -0.047203 0.333100 -0.369941 0.867288 0.000000
0.706521 0.076563 -0.010707 0.365563 -0.534534 0.761995 0.000000
-0.236562 0.353537 0.054721 0.096753 -0.139754 0.985448 0.000000
0.080083 -0.138845 0.027493 0.081021 -0.135036 0.987523 0.000000
0.089424 -0.060433 -0.024133 0.032444 0.712354 0.701070 0.000000
-0.207286 0.151522 0.041699 -0.058843 0.001032 0.998267 0.000000
0.036451 -0.078275 -0.014199 -0.027644 0.972331 0.231965 0.000000
0.228205 0.571172 0.013557 -0.748828 0.126541 0.650572 0.000000
0.078626 0.274817 0.055255 -0.058843 0.001032 0.998267 0.000000
-0.307086 -0.412271 0.003059 -0.058843 0.001032 0.998267 0.000000
-0.283602 0.010617 0.029023 -0.007272 -0.998340 0.057137 0.000000
-0.379988 -0.075170 -0.017437 -0.276322 0.710769 0.646880 0.000000
0.173921 -0.629392 -0.068272 -0.430583 -0.351721 0.831198 0.000000
-0.031622 -0.093628 0.027473 0.136755 0.200660 0.970069 0.000000
-0.298856 0.044739 0.034663 -0.058843 0.001032 0.998267 0.000000
0.151368 -0.037794 -0.035171 -0.247554 0.185327 0.950984 0.000000
0.517158 0.310789 0.033702 0.832700 0.264178 0.486643 0.000000
0.429286 0.289199 0.061161 -0.058843 0.001032 0.998267 0.000000
-0.226577 -0.631290 -0.085253 0.072109 0.067671 0.995098 0.000000
0.485057 0.403446 0.067730 0.085911 -0.132985 0.987388 0.000000
0.291763 -0.047245 -0.030196 -0.055391 0.597942 0.799623 2.000000
0.433195 0.172412 0.053204 0.009441 -0.068187 0.997628 0.000000
0.670498 0.414637 0.000324 -0.091133 0.577176 0.811518 0.000000
-0.411338 0.252507 0.049326 0.148611 0.005587 0.988880 0.000000
-0.398866 0.005369 0.014100 -0.404800 -0.906249 0.121860 0.000000
-0.444739 -0.102269 0.024428 -0.059947 0.379663 0.923181 0.000000
-0.141707 -0.095919 0.025905 -0.058843 0.001032 0.998267 0.000000
-0.206168 0.070314 0.038481 0.013694 -0.068470 0.997559 0.000000
-0.635396 0.466030 -0.024116 0.134046 -0.404959 0.904456 0.000000
-0.315259 0.167396 0.045154 0.089016 -0.138866 0.986302 0.000000
0.543199 0.416305 0.007534 0.418744 -0.574325 0.703424 0.000000
0.369713 -0.655437 -0.051225 -0.606238 0.324944 0.725870 0.000000
0.718333 0.024704 0.016068 -0.069579 0.552372 0.830689 0.000000
-0.003273 0.533366 -0.029402 0.758719 -0.601634 0.249765 0.000000
0.426735 0.614819 -0.004138 -0.874898 -0.454246 -0.167969 0.000000
0.003867 0.106460 0.044297 0.083548 -0.135323 0.987273 0.000000
-0.377013 -0.480774 0.000564 -0.058843 0.001032 0.998267 0.000000
-0.478751 -0.255702 0.014230 0.088837 -0.136217 0.986688 0.000000
0.264781 -0.545019 -0.066175 0.293285 0.359463 0.885873 0.000000
-0.278650 0.007616 -0.019621 -0.046355 -0.388054 0.920470 0.000000
0.531207 -0.541804 -0.061953 0.355185 0.702186 0.617073 0.000000
0.190512 0.339642 0.061841 -0.058843 0.001032 0.998267 0.000000
-0.287854 -0.667916 -0.085600 0.074451 0.003146 0.997220 0.000000
0.386397 -0.204907 0.027509 0.136148 0.005534 0.990673 0.000000
-0.605423 -0.363313 -0.065004 -0.383724 -0.154339 0.910459 0.000000
0.121902 -0.237451 0.025025 0.009443 -0.066098 0.997768 0.000000
-0.157821 0.233692 0.047892 -0.052223 -0.214962 0.975225 0.000000
-0.647721 0.438488 -0.062363 -0.865392 -0.217473 0.451444 0.000000
0.531351 0.241612 0.001895 0.892577 -0.033556 0.449644 0.000000
0.480555 -0.215341 0.024875 0.130653 -0.001098 0.991428 0.000000
0.328639 -0.419971 0.011012 -0.180865 -0.262458 0.947841 0.000000
-0.350825 -0.001794 -0.023860 -0.029566 -0.660307 0.750413 0.000000
0.052575 0.392408 0.063545 0.009441 -0.068187 0.997628 0.000000
-0.430280 0.244006 0.048212 0.089554 -0.146869 0.985094 0.000000
0.233511 0.422288 0.052971 -0.046438 0.806340 0.589627 0.000000
-0.583217 0.313933 -0.016203 0.352010 0.888263 0.295089 0.000000
-0.395981 -0.590932 -0.085400 0.013721 -0.070715 0.997402 0.000000
0.223346 0.022359 0.037577 -0.051933 -0.206524 0.977062 0.000000
0.184923 0.103175 0.046765 -0.058843 0.001032 0.998267 0.000000
-0.029418 -0.025241 -0.040884 0.076000 -0.134462 0.988000 0.000000
0.226944 -0.409073 0.011569 -0.058843 0.001032 0.998267 0.000000
-0.595082 0.282776 -0.005492 -0.687372 0.159325 0.708615 0.000000
-0.149317 -0.073909 -0.021839 0.066771 0.258264 0.963764 0.000000
-0.182811 0.347635 0.054611 0.084416 -0.146241 0.985641 0.000000
-0.287194 -0.444058 0.000954 0.078663 -0.137366 0.987392 0.000000
0.256557 0.434513 0.029857 -0.143163 -0.670604 0.727870 0.000000
0.077039 0.435590 0.029110 0.175964 0.859119 0.480574 0.000000
-0.432484 -0.247039 0.015318 -0.058843 0.001032 0.998267 0.000000
-0.161639 -0.084438 0.024738 -0.034797 0.975511 0.217180 0.000000
-0.292783 0.203242 0.043220 -0.058843 0.001032 0.998267 0.000000
-0.213672 -0.294963 0.013467 0.009461 -0.068330 0.997618 0.000000
-0.578715 -0.412795 -0.073238 0.553364 -0.370542 0.745981 0.000000
0.151024 -0.121617 0.031661 -0.058843 0.001032 0.998267 0.000000
-0.463591 -0.153444 0.021674 -0.305544 -0.127871 0.943553 0.000000
0.430227 0.141004 0.051387 0.078506 -0.134748 0.987765 0.000000
0.287738 0.012282 0.036460 -0.016466 -0.993451 0.113067 0.000000
0.130769 -0.046631 -0.033120 0.057735 0.406831 0.911677 0.000000
0.559023 0.033748 -0.034061 -0.380443 -0.699950 0.604427 0.000000
-0.408437 0.396293 0.057693 0.079250 0.068088 0.994527 0.000000
0.565126 0.164875 -0.020612 0.007314 -0.065824 0.997804 0.000000
0.494278 -0.089790 0.011039 0.744015 0.496560 0.447069 0.000000
-0.672656 0.431118 -0.031206 -0.823503 0.020691 0.566934 0.000000
0.595699 -0.119166 -0.046630 -0.329374 -0.634410 0.699311 0.000000
-0.006755 0.253247 0.051870 -0.058843 0.001032 0.998267 0.000000
0.663725 0.106906 -0.000163 -0.355101 -0.460199 0.813708 0.000000
-0.262316 0.253294 0.049916 -0.253843 -0.204446 0.945392 0.000000
0.306659 -0.102539 0.032645 0.069447 0.258848 0.963418 0.000000
-0.146902 -0.048635 -0.036372 0.094781 0.610975 0.785956 0.000000
-0.086920 0.158485 0.045507 -0.058843 0.001032 0.998267 0.000000
0.197195 -0.360672 0.016361 0.009443 -0.066098 0.997768 0.000000
-0.049136 0.596837 -0.019028 0.032320 0.360697 0.932123 0.000000
0.549002 0.669242 -0.013258 0.245517 0.423253 0.872112 0.000000
-0.644000 0.197946 -0.041010 -0.052666 0.007229 0.998586 0.000000
0.723655 -0.331212 -0.045703 -0.368500 -0.250106 0.895352 0.000000
0.618586 0.002904 -0.045249 -0.421393 0.637920 0.644582 0.000000
-0.161786 0.244813 0.049292 -0.058843 0.001032 0.998267 0.000000
-0.636283 -0.290514 -0.070057 0.401476 0.903675 0.148957 0.000000
0.317741 0.044002 0.043126 -0.058843 0.001032 0.998267 0.000000
-0.682637 0.621075 -0.026844 -0.186011 -0.001141 0.982547 0.000000
0.443829 0.098102 0.048912 -0.058843 0.001032 0.998267 0.000000
0.477917 0.051719 0.046004 0.080859 -0.132422 0.987890 0.000000
0.024819 0.235319 0.050453 0.086458 -0.138570 0.986571 0.000000
-0.084452 -0.229147 0.019439 -0.058843 0.001032 0.998267 0.000000
-0.656065 -0.425040 -0.064734 0.217136 0.129768 0.967477 0.000000
0.026357 -0.227200 0.022684 0.009443 -0.066098 0.997768 0.000000
-0.642309 -0.395490 -0.093277 0.036174 0.983689 0.176201 0.000000
-0.143031 0.487583 -0.008259 -0.058843 0.001032 0.998267 0.000000
-0.267552 -0.423736 0.003742 -0.058843 0.001032 0.998267 0.000000
0.007652 0.311339 0.055992 -0.052319 -0.217793 0.974592 0.000000
-0.322373 0.025154 0.031648 -0.052029 -0.209328 0.976460 0.000000
-0.463458 -0.176904 0.020043 -0.058843 0.001032 0.998267 0.000000
-0.275866 0.064718 0.036020 -0.058843 0.001032 0.998267 0.000000
-0.275842 0.570162 -0.006242 0.168426 0.294404 0.940723 0.000000
0.127904 -0.479150 0.005737 0.141108 0.005555 0.989979 0.000000
0.190212 -0.604248 -0.067309 0.067394 0.067394 0.995448 0.000000
-0.274148 -0.130081 0.024645 0.013721 -0.070715 0.997402 0.000000
0.535956 0.396220 0.005470 0.378668 0.288149 0.879534 0.000000
-0.318378 0.067372 0.036784 0.089016 -0.138866 0.986302 0.000000
0.048960 -0.171162 0.027286 0.009443 -0.066098 0.997768 0.000000
0.086069 -0.626578 -0.071794 0.467048 -0.201443 0.860980 0.000000
-0.468757 -0.438953 -0.006439 0.011588 -0.068472 0.997586 0.000000
0.444920 -0.488211 0.008028 -0.158888 -0.405092 0.900364 0.000000
-0.005824 -0.203913 0.024061 -0.125144 -0.134864 0.982930 0.000000
0.518812 -0.249263 -0.021819 0.286682 -0.161683 0.944284 0.000000
-0.535816 -0.069438 -0.039630 -0.614918 -0.297023 0.730516 0.000000
-0.495355 -0.406882 -0.001467 0.088658 -0.133579 0.987064 0.000000
0.516291 -0.004923 -0.030052 0.649240 -0.240518 0.721553 0.000000
0.081461 -0.043596 -0.034381 -0.059418 0.360467 0.930877 0.000000
0.472795 -0.447169 0.009675 0.180041 -0.230719 0.956218 0.000000
0.185970 0.002674 -0.018447 -0.107069 -0.492518 0.863691 0.000000
-0.266261 -0.133852 0.023478 0.011588 -0.068472 0.997586 0.000000
-0.315593 0.449713 0.001175 0.737693 0.342095 0.582048 0.000000
-0.257481 -0.228200 0.019072 -0.058843 0.001032 0.998267 0.000000
-0.414470 0.623302 -0.024153 -0.057955 0.411076 0.909757 0.000000
-0.122088 0.648396 -0.005351 -0.153215 0.288803 0.945049 0.000000
-0.687926 -0.195229 -0.068646 -0.107137 -0.788116 0.606131 0.000000
0.383610 0.014402 0.038828 0.077085 -0.486338 0.870364 0.000000
0.489759 -0.055805 -0.020208 0.073759 0.669616 0.739036 0.000000
-0.535139 0.303066 0.015974 -0.884477 -0.243119 0.398238 0.000000
0.348808 0.557160 0.001058 -0.082242 -0.996516 -0.013885 0.000000
-0.345613 -0.028379 -0.041504 -0.114308 -0.321408 0.940016 2.000000
-0.346053 -0.636812 -0.087377 -0.483960 0.088891 0.870564 0.000000
0.593118 0.601326 0.056189 -0.419035 -0.851987 -0.313890 0.000000
-0.262056 0.211762 0.045027 -0.058843 0.001032 0.998267 0.000000
0.367949 -0.277425 0.024775 -0.058843 0.001032 0.998267 0.000000
0.306603 0.145583 0.050660 0.011586 -0.070569 0.997440 0.000000
0.467776 0.208491 0.056872 0.011588 -0.068472 0.997586 0.000000
-0.163566 -0.641898 -0.078297 -0.349378 -0.064602 0.934752 0.000000
